495
4.925703 0.282789 -16.671698
4.886054 0.294907 -16.663265
4.846277 0.306746 -16.654177
4.806418 0.318401 -16.644503
4.766424 0.329145 -16.633823
4.726396 0.339548 -16.622507
4.686428 0.350084 -16.610851
4.646710 0.362029 -16.599649
4.607119 0.374108 -16.588139
4.567719 0.386566 -16.576502
4.528671 0.400431 -16.565367
4.489771 0.413734 -16.553572
4.450916 0.425350 -16.540457
4.412344 0.436953 -16.527054
4.374045 0.448183 -16.513159
4.336103 0.459446 -16.499037
4.298552 0.470732 -16.484699
4.261434 0.482123 -16.470215
4.224904 0.494603 -16.456196
4.188442 0.503584 -16.439903
4.152480 0.512369 -16.423340
4.049685 0.543195 -16.366087
3.940647 0.572715 -16.310579
3.830178 0.607917 -16.266233
3.719810 0.650078 -16.234261
3.608434 0.695880 -16.209288
3.496755 0.745166 -16.190475
3.387230 0.800819 -16.181345
3.281167 0.863731 -16.182554
3.179412 0.933985 -16.193609
3.081596 1.009552 -16.210989
2.984892 1.084128 -16.225029
2.890952 1.159198 -16.237246
2.801125 1.235722 -16.248400
2.717125 1.315298 -16.260170
2.639748 1.397921 -16.271935
2.568790 1.481850 -16.280573
2.505387 1.567675 -16.286324
2.449233 1.653474 -16.285816
2.399853 1.737036 -16.275251
2.361736 1.824782 -16.263237
2.331149 1.908832 -16.237848
2.311007 1.992870 -16.203754
2.300748 2.074529 -16.156944
2.300110 2.151968 -16.094164
2.303161 2.215227 -16.031450
2.307247 2.275293 -15.966202
2.310188 2.329180 -15.895345
2.312099 2.377471 -15.819406
2.315715 2.424837 -15.743024
2.323776 2.475953 -15.670843
2.334217 2.528010 -15.599974
2.340105 2.570608 -15.519875
2.349435 2.616616 -15.443448
2.360925 2.664441 -15.369019
2.376794 2.717950 -15.300422
2.393010 2.771264 -15.231671
2.407700 2.821872 -15.160180
2.421266 2.870808 -15.086917
2.433585 2.918285 -15.012038
2.441348 2.959557 -14.930701
2.447610 2.999789 -14.848042
2.452865 3.040157 -14.765179
2.457460 3.081613 -14.683010
2.465538 3.131014 -14.608380
2.470513 3.150585 -14.572957
2.476597 3.170681 -14.537419
2.483882 3.188478 -14.498237
2.492288 3.202940 -14.454189
2.501363 3.216868 -14.408998
2.510137 3.238438 -14.373337
2.519323 3.258397 -14.335379
2.528747 3.276662 -14.295125
2.537493 3.300866 -14.262541
2.545322 3.331601 -14.238505
2.552981 3.359250 -14.210726
2.559684 3.390092 -14.187418
2.565250 3.424131 -14.168698
2.569949 3.456682 -14.148635
2.573601 3.487741 -14.127342
2.575448 3.523297 -14.112658
2.575770 3.558556 -14.098511
2.574467 3.592697 -14.083958
2.571450 3.624769 -14.067885
2.566309 3.657143 -14.053466
2.553298 3.729249 -14.038974
2.541719 3.801645 -14.024422
2.525589 3.874878 -14.013380
2.524117 3.947093 -13.994446
2.526610 4.019284 -13.973982
2.523685 4.092320 -13.957585
2.513333 4.166371 -13.946457
2.505144 4.240496 -13.934915
2.499052 4.314679 -13.923007
2.493009 4.389088 -13.911969
2.487966 4.463609 -13.901242
2.484346 4.538178 -13.890593
2.481562 4.612827 -13.880382
2.480750 4.687421 -13.869942
2.479879 4.762132 -13.860499
2.482126 4.836630 -13.850180
2.486284 4.911007 -13.839707
2.491468 4.985324 -13.829625
2.501027 5.059236 -13.817958
2.514331 5.132778 -13.805086
2.520338 5.203750 -13.795977
2.525895 5.275184 -13.787051
2.533322 5.346869 -13.776592
2.540733 5.418845 -13.766395
2.546214 5.491153 -13.758276
2.548921 5.563769 -13.753159
2.551997 5.636431 -13.748638
2.551697 5.709291 -13.748061
2.552022 5.782035 -13.748307
2.554900 5.854474 -13.747986
2.558288 5.926656 -13.749019
2.562248 5.998505 -13.751573
2.565567 6.070019 -13.756884
2.568918 6.141084 -13.764608
2.572880 6.211594 -13.774481
2.577502 6.281468 -13.786680
2.584399 6.350540 -13.800076
2.593666 6.418728 -13.814809
2.604872 6.485986 -13.831458
2.617570 6.552266 -13.850617
2.624072 6.597283 -13.856331
2.631499 6.641513 -13.863576
2.638972 6.681215 -13.876555
2.648854 6.728498 -13.881274
2.657361 6.765403 -13.898269
2.665163 6.795755 -13.923064
2.672079 6.819223 -13.955949
2.677920 6.835436 -13.997260
2.682245 6.842782 -14.048763
2.685251 6.842788 -14.108612
2.689327 6.847680 -14.162676
2.694611 6.858688 -14.209450
2.698910 6.865637 -14.260537
2.705098 6.883133 -14.299068
2.710704 6.899647 -14.338196
2.715888 6.916509 -14.376312
2.720843 6.935217 -14.411599
2.725011 6.953591 -14.446477
2.728271 6.971592 -14.480905
2.730473 6.989033 -14.515001
2.731360 7.018723 -14.561788
2.733162 7.046316 -14.609447
2.734520 7.074656 -14.656595
2.735749 7.103147 -14.703540
2.738101 7.129268 -14.751530
2.742027 7.152140 -14.801006
2.747189 7.172509 -14.851617
2.754464 7.188622 -14.904235
2.760668 7.207073 -14.955642
2.769939 7.219413 -15.009989
2.780105 7.230148 -15.065084
2.791728 7.238179 -15.121473
2.802012 7.249299 -15.176335
2.812450 7.260490 -15.231160
2.823062 7.271764 -15.285954
2.833395 7.284099 -15.340253
2.842811 7.298861 -15.393401
2.852119 7.314431 -15.446200
2.861200 7.331107 -15.498518
2.870185 7.348671 -15.550474
2.875311 7.358478 -15.578785
2.880263 7.368145 -15.607334
2.884625 7.378188 -15.635835
2.888694 7.388416 -15.664351
2.892755 7.398648 -15.692939
2.896862 7.408936 -15.721541
2.901066 7.419328 -15.750102
2.904919 7.430378 -15.778323
2.908567 7.442046 -15.806192
2.912493 7.453949 -15.833860
2.916754 7.466137 -15.861273
2.921408 7.478655 -15.888378
2.926514 7.491546 -15.915115
2.932128 7.504863 -15.941442
2.938308 7.518645 -15.967296
2.945414 7.532640 -15.992767
2.953626 7.546772 -16.017866
2.962596 7.561492 -16.042341
2.972381 7.576847 -16.066137
2.983042 7.592879 -16.089199
2.993645 7.608509 -16.110830
3.003331 7.623478 -16.133442
3.012207 7.637862 -16.156902
3.020767 7.651117 -16.181334
3.028685 7.664014 -16.206329
3.036067 7.676630 -16.231764
3.043035 7.689022 -16.257515
3.049707 7.701246 -16.283470
3.056202 7.713357 -16.309500
3.063017 7.724807 -16.335726
3.071269 7.734042 -16.362673
3.079583 7.743531 -16.389257
3.088113 7.753271 -16.415388
3.097085 7.763147 -16.441011
3.107784 7.771337 -16.466749
3.118647 7.780611 -16.491411
3.130310 7.790190 -16.515205
3.144801 7.797057 -16.539230
3.160867 7.803480 -16.562489
3.178094 7.810375 -16.584520
3.201557 7.819775 -16.612629
3.221582 7.826917 -16.643585
3.239066 7.830788 -16.677387
3.253744 7.833297 -16.713276
3.266030 7.834648 -16.750929
3.276340 7.835039 -16.790033
3.285087 7.834676 -16.830276
3.292665 7.833810 -16.871313
3.299473 7.832685 -16.912828
3.305896 7.831576 -16.954479
3.312280 7.830853 -16.995909
3.317597 7.834349 -17.035851
3.323876 7.838203 -17.075048
3.330941 7.844105 -17.112793
3.338630 7.853705 -17.148392
3.348667 7.863908 -17.182388
3.360550 7.877225 -17.213863
3.375141 7.892735 -17.242788
3.393388 7.909295 -17.269199
3.415678 7.927177 -17.292763
3.475897 7.972898 -17.347015
3.531895 8.021955 -17.402229
3.584599 8.068775 -17.463102
3.634106 8.116546 -17.526297
3.680754 8.165893 -17.590809
3.725073 8.215463 -17.657475
3.767423 8.265641 -17.725517
3.808182 8.316687 -17.794281
3.847473 8.371480 -17.860710
3.886186 8.424853 -17.929127
3.924565 8.478453 -17.997599
3.962921 8.533196 -18.064875
4.001732 8.588263 -18.131283
4.041437 8.643220 -18.196806
4.082387 8.698580 -18.260557
4.124844 8.755785 -18.320795
4.169545 8.811301 -18.380344
4.216805 8.865976 -18.438009
4.267463 8.915182 -18.497620
4.321659 8.961678 -18.556225
4.352402 8.985851 -18.584637
4.383931 9.007502 -18.614086
4.416628 9.028140 -18.643223
4.450609 9.048326 -18.671497
4.485564 9.067125 -18.699644
4.521638 9.085205 -18.727028
4.558837 9.102741 -18.753433
4.597109 9.119703 -18.778822
4.635283 9.132112 -18.806547
4.674104 9.142756 -18.834146
4.714146 9.153819 -18.859684
4.755003 9.164021 -18.884192
4.795501 9.169366 -18.911034
4.834406 9.165645 -18.943754
4.873652 9.159863 -18.976286
4.914160 9.155424 -19.005640
4.954040 9.145798 -19.037352
4.994295 9.134687 -19.068180
5.034994 9.122502 -19.097715
5.076142 9.109406 -19.125750
5.138383 9.091443 -19.166641
5.201458 9.073624 -19.205376
5.266648 9.063747 -19.233629
5.333248 9.058171 -19.255238
5.401091 9.056351 -19.270739
5.470423 9.060123 -19.278139
5.539740 9.061234 -19.286186
5.609283 9.061502 -19.292902
5.678947 9.060732 -19.298462
5.748239 9.056501 -19.305393
5.817648 9.052052 -19.310225
5.887446 9.049365 -19.310814
5.957139 9.046015 -19.309702
6.027194 9.045115 -19.303537
6.096906 9.043015 -19.296169
6.166227 9.039859 -19.287409
6.235086 9.035652 -19.277210
6.303371 9.030184 -19.265762
6.371633 9.027033 -19.249224
6.439914 9.026858 -19.226860
6.512715 9.024930 -19.206972
6.583980 9.017993 -19.186129
6.654331 9.010265 -19.162830
6.723745 9.001345 -19.137407
6.792339 8.991834 -19.109800
6.860167 8.981864 -19.080122
6.927267 8.971472 -19.048536
6.993742 8.961152 -19.015013
7.059606 8.950749 -18.979788
7.124857 8.940023 -18.943121
7.189497 8.928727 -18.905289
7.253456 8.916135 -18.866735
7.316815 8.902574 -18.827515
7.379238 8.885367 -18.788843
7.441263 8.868161 -18.749458
7.502799 8.850056 -18.709885
7.562660 8.822267 -18.673748
7.622365 8.795470 -18.637022
7.681480 8.766329 -18.601192
7.739829 8.733294 -18.567034
7.802030 8.697715 -18.529549
7.863360 8.662570 -18.490408
7.923748 8.627479 -18.449886
7.983229 8.592346 -18.408129
8.041878 8.557177 -18.365227
8.100675 8.524373 -18.320253
8.158021 8.489523 -18.275221
8.214035 8.452749 -18.230175
8.269525 8.415994 -18.184378
8.324612 8.379395 -18.137875
8.380381 8.345614 -18.089621
8.436240 8.312909 -18.040468
8.491858 8.280219 -17.990982
8.547644 8.248421 -17.940882
8.603440 8.216917 -17.890537
8.659210 8.185417 -17.840166
8.715282 8.154608 -17.789585
8.771225 8.123149 -17.739470
8.827340 8.091654 -17.689661
8.883715 8.060165 -17.640244
8.906288 8.048302 -17.620222
8.928324 8.034782 -17.600550
8.950351 8.021195 -17.580446
8.972260 8.007514 -17.559929
8.993956 7.993767 -17.538980
9.015352 7.979979 -17.517599
9.036358 7.966176 -17.495775
9.056881 7.952385 -17.473488
9.076828 7.938636 -17.450743
9.095908 7.924436 -17.427771
9.113960 7.909642 -17.404652
9.131192 7.895034 -17.381004
9.147517 7.880645 -17.356817
9.162846 7.866508 -17.332069
9.177007 7.852438 -17.306864
9.189804 7.838211 -17.281311
9.201333 7.824314 -17.255171
9.211505 7.810782 -17.228432
9.220234 7.797648 -17.201082
9.227428 7.784944 -17.173103
9.248954 7.741670 -17.085644
9.269564 7.699414 -16.997513
9.289030 7.655749 -16.909809
9.307493 7.611458 -16.822199
9.325450 7.570447 -16.732967
9.343388 7.536498 -16.640438
9.361105 7.507450 -16.545588
9.378825 7.484791 -16.447775
9.396632 7.468818 -16.346882
9.413916 7.453779 -16.245499
9.430898 7.441155 -16.142973
9.447084 7.426221 -16.041430
9.463146 7.414368 -15.938489
9.479253 7.406657 -15.833689
9.495337 7.402028 -15.727522
9.511250 7.398764 -15.620768
9.526267 7.390110 -15.516460
9.541240 7.383056 -15.411498
9.554563 7.363170 -15.312333
9.567974 7.345131 -15.212438
9.581208 7.326230 -15.113035
9.592465 7.290310 -15.021352
9.604364 7.259765 -14.927414
9.613968 7.208573 -14.842847
9.623110 7.152245 -14.760751
9.631913 7.091451 -14.680840
9.639534 7.039528 -14.612600
9.652336 6.986598 -14.535185
9.667012 6.928030 -14.463305
9.680566 6.859702 -14.410200
9.696609 6.788439 -14.357426
9.714599 6.714182 -14.306460
9.733624 6.636272 -14.260527
9.754873 6.557515 -14.212810
9.777141 6.476760 -14.167951
9.798856 6.392242 -14.132360
9.820690 6.305927 -14.101671
9.843087 6.219381 -14.072643
9.866020 6.133410 -14.044269
9.887758 6.045989 -14.023706
9.906246 5.954556 -14.019685
9.923383 5.863096 -14.021979
9.936094 5.767363 -14.044183
9.948149 5.674442 -14.067103
9.958597 5.583605 -14.094159
9.967642 5.496025 -14.123266
9.979563 5.405200 -14.163928
9.991305 5.313463 -14.204857
10.002748 5.222842 -14.249077
10.013771 5.135044 -14.299105
10.024389 5.043189 -14.344145
10.034447 4.951529 -14.390664
10.043930 4.854876 -14.430490
10.052586 4.764128 -14.480397
10.060373 4.675601 -14.534550
10.067225 4.587976 -14.590771
10.073027 4.502927 -14.651534
10.077689 4.420061 -14.716103
10.081067 4.343077 -14.790084
10.083161 4.265882 -14.863905
10.083676 4.202001 -14.958423
10.082784 4.134011 -15.046471
10.080296 4.068143 -15.137600
10.076241 3.996620 -15.219611
10.070430 3.925686 -15.302068
10.062765 3.856074 -15.385980
10.053146 3.788208 -15.471878
10.041517 3.719843 -15.556153
10.033148 3.675499 -15.603601
10.022419 3.630245 -15.648671
10.009537 3.585824 -15.694659
9.994481 3.539921 -15.737103
9.977507 3.495170 -15.781004
9.958622 3.449771 -15.822886
9.937943 3.403781 -15.862823
9.915462 3.355175 -15.896920
9.891432 3.306522 -15.930036
9.865961 3.257803 -15.962108
9.839175 3.209315 -15.993659
9.810885 3.155730 -16.014498
9.781622 3.104622 -16.039028
9.751225 3.051114 -16.057917
9.719931 2.997551 -16.075605
9.687782 2.942704 -16.089710
9.654952 2.887761 -16.102457
9.621537 2.832467 -16.113335
9.587828 2.780088 -16.128529
9.553740 2.727196 -16.141472
9.500781 2.643607 -16.166643
9.445402 2.563329 -16.196232
9.387874 2.485851 -16.229372
9.330400 2.406262 -16.257296
9.269057 2.333602 -16.296190
9.210611 2.252590 -16.318775
9.147953 2.179501 -16.354153
9.086359 2.102445 -16.381102
9.023726 2.026310 -16.408386
8.961523 1.947863 -16.430246
8.896948 1.873587 -16.458296
8.831624 1.799890 -16.486141
8.764428 1.729449 -16.518587
8.696237 1.660367 -16.552269
8.628851 1.588658 -16.580095
8.558459 1.523102 -16.617771
8.488160 1.456756 -16.652922
8.418752 1.387917 -16.682524
8.347363 1.323223 -16.718462
8.276045 1.258108 -16.752611
8.221847 1.204697 -16.775965
8.166839 1.154203 -16.805964
8.112264 1.101991 -16.835926
8.056883 1.052172 -16.870495
8.002175 0.999283 -16.901932
7.947105 0.946715 -16.933949
7.890514 0.898288 -16.970816
7.834412 0.846685 -17.002390
7.777255 0.797070 -17.034681
7.718524 0.751022 -17.069057
7.659529 0.703680 -17.098553
7.599364 0.657969 -17.126278
7.537253 0.616377 -17.154783
7.474070 0.575563 -17.179068
7.409234 0.537324 -17.200779
7.342462 0.502402 -17.220217
7.273347 0.471967 -17.238205
7.202332 0.444214 -17.251745
7.129704 0.417873 -17.258511
7.055274 0.393358 -17.258369
6.959200 0.362899 -17.251444
6.862479 0.335975 -17.241489
6.767292 0.301120 -17.220530
6.674114 0.256065 -17.187218
6.582861 0.201569 -17.142393
6.492626 0.142832 -17.090103
6.399231 0.102694 -17.047112
6.303364 0.077743 -17.011253
6.205977 0.063138 -16.979328
6.107778 0.055371 -16.949100
6.006984 0.064356 -16.928011
5.904374 0.086200 -16.913544
5.802554 0.107127 -16.896057
5.702229 0.123645 -16.873323
5.604158 0.131959 -16.842901
5.506766 0.140859 -16.811420
5.409806 0.151991 -16.780361
5.311974 0.172686 -16.755306
5.214368 0.197325 -16.732496
5.117227 0.224908 -16.711494
5.020893 0.253906 -16.691500
4.925703 0.282789 -16.671698
